0.03814587481761082 0.9026601092230058 -1.461542974974639
0.018010749754546546 0.898201924132553 -1.475372374879813
0.07888931072106287 0.9090389726207614 -1.4417555836756664
0.054902070457144875 0.9027937999747306 -1.4611282629715001
-0.05397759320410189 0.896804622694698 -1.4797079530083788
-0.07042644947873922 0.9028378382518994 -1.4609961652832988
0.053227162952628554 0.893632972131595 -1.4473123192967945
0.07805996596304862 0.8833064562888444 -1.4793157163860395
-0.07056321662298465 0.8920269899960531 -1.4522894950242746
-0.05521291849650437 0.8900231981040848 -1.4584995419151532
0.07952097803354263 0.9003242130582323 -1.445679457066694
0.07952097803354263 0.8940458936604018 -1.4847481042529407
-0.0795215591788292 0.8975577349018723 -1.472812571778453
-0.0795215591788292 0.8870551409680819 -1.4806050540055282
-0.0795215591788292 0.903151219566293 -1.4292555706223924
-0.0795215591788292 0.9018652323823197 -1.4261387888464259
0.07952097803354263 0.9054647197737955 -1.4311459561270605
0.07952097803354263 0.9099833035536455 -1.4275149963886755
-0.057169545921666926 0.9022371959157336 -1.4206177866499745
-0.0725804169747764 0.8992065732597251 -1.4300371959830929
0.06670356601478823 0.8999072804684691 -1.4278593438480738
0.07179942951058299 0.901360570407081 -1.4233424064509523
-0.06551765276990076 0.9120202096863752 -1.4325146207914525
-0.07193269854486625 0.9134023740313357 -1.4282222144800878
0.05546185410945125 0.9148535675113889 -1.4237149347789706
0.07431940461457501 0.9123079892841576 -1.4316140170712321
-0.057451072930321416 0.9139936389702973 -1.4227558490927772
-0.07527068229734074 0.9041564984922783 -1.4195759146766946
0.06905998650041933 0.9038447677831136 -1.419475145229228
0.07907427212091947 0.9042367115160233 -1.4196018441788092
0.05241774395108224 0.9068583732476706 -1.4156201459770734
0.05241774395108223 0.9140458807169622 -1.4103870751945993
0.052417967412037816 0.9312324448535009 -1.4355583612695964
0.05241821010614753 0.9514023363229966 -1.441035096504948
0.052418045811047344 0.9400078166206414 -1.4303204420136941
0.05241809623826093 0.9456815298949328 -1.4268609588756127
-0.05241779657359442 0.9565083006064545 -1.443728412504555
-0.05241812174372536 0.9305711344047629 -1.4330232858771217
-0.05241789132529271 0.9526486591849833 -1.4291351995609665
-0.05241811811255086 0.9340996291046334 -1.4230902592751322
-0.052418328821659095 0.911639182416663 -1.4182114353490909
-0.05241832882165909 0.9059466168781648 -1.4136365774407367
0.012743514726843184 0.9002935008040425 -1.4266589412092539
0.04236581186694832 0.9014477573681926 -1.4230714226405485
0.033655161503692015 0.9029670877824778 -1.4183523836405023
0.042356622560378816 0.903772367299378 -1.4158598714850874
0.019567941080374025 0.965229133342919 -1.4314299631821772
0.04578616710873672 0.9655665525141632 -1.4303829312064429
0.02412802898040927 0.9619090242111499 -1.441729528610574
0.03839560307014259 0.9593103789119628 -1.4497858959182035
-0.011824130446108715 0.9592309851948645 -1.4500320337605097
-0.041919617653016404 0.9610915617608602 -1.4442638405313997
-0.029175803637710516 0.9631003519503407 -1.4380356998365555
-0.042444816188256566 0.9657114139844323 -1.4299334173543872
-0.02125260213906103 0.9062727271676355 -1.4081207234827462
-0.048545643045565974 0.9049716587529688 -1.4121478082036725
-0.03269004557527036 0.90160241938765 -1.4225907211362996
-0.04604599075475583 0.8999045331625 -1.4278678826872575
0.0023630513238891843 0.8998113379730848 -1.4281575405353695
0.006168761592053443 0.8997436355482017 -1.4283679649019776
-0.009048740306106981 0.9043218126397599 -1.414159220765807
0.004929224596030089 0.9043746495166748 -1.413995679342983
0.008138014643828247 0.9610446035956084 -1.444409421087345
-0.008587249221239244 0.9621066833000544 -1.4411167423167281
0.0077031706035172376 0.9639297331418015 -1.4354620801328206
-0.009089074551392792 0.9650926118326191 -1.4318535976370077
0.05241807646908794 0.9466949745647649 -1.4181733680765758
0.052417970924733805 0.9397168450507449 -1.4102327975941715
0.05241774395108223 0.913560442091061 -1.4068567295159427
0.05241774395108224 0.9110891005335038 -1.3986717600496616
-0.05241786682483887 0.9578565208579428 -1.4198528513235031
-0.05241812815921186 0.9359077924263988 -1.4146703573156385
-0.05241832882165908 0.9206949907635917 -1.4010301570388313
-0.05241832882165909 0.9126386441240464 -1.407349285639401
0.04449920443763069 0.9123891707469188 -1.3959783246406463
0.04366141451871297 0.9192873887945114 -1.398203027053694
0.022071733278402804 0.9269602415434371 -1.4006775560089493
0.04870920276361753 0.9685893436424611 -1.4141031423828052
-0.01748606020525684 0.9594928200151123 -1.4111694696033563
-0.03783938369032187 0.9299213594658167 -1.4016325308324635
-0.03558742906050906 0.920113614813988 -1.3984694881899715
-0.03535136790794483 0.9120182307953273 -1.395858695049394
0.016609928211830285 0.9432069463240471 -1.4448815823676693
0.03519968727208145 0.937645432826721 -1.443086887353409
-0.021414598449076252 0.9214614134514855 -1.4378716538111347
-0.046138365397770977 0.9234753539890826 -1.4385211593559575
0.00023828346499793918 0.9413754655585436 -1.4442940317423427
0.0042372357507245275 0.9363194428671411 -1.4426615700601988
-0.0029868658495704014 0.956312652850181 -1.4101438503417514
-0.004619866362307324 0.9289827027787767 -1.401329809519924
0.0033136996399225445 0.9194876827016782 -1.3982676226254083
-0.0008308035913123044 0.9137890761118412 -1.3964297996189514
-0.01960354454411288 0.9094812527005658 -1.3981714444613815
-0.04700728454342995 0.9070742084540822 -1.4056361596683258
0.01724624390221914 0.907453885317913 -1.4044587074202821
0.048459143880166554 0.9095654089527241 -1.3979104594561562
0.028046823360677382 0.9688732611210276 -1.420126165170496
0.036437826002979665 0.9671227603231851 -1.4255548106740057
-0.040009672256849996 0.9673282919790376 -1.4249174167917817
-0.036343147528038265 0.9694534098185139 -1.4183270105389423
-0.0016022989389742233 0.9666491931599985 -1.4270234351123445
-0.008403131991642962 0.968089810177241 -1.4225557998490115
0.0068630897566326 0.25243580208572297 -1.2109658865414679
0.010002730836404015 0.24449775465182275 -1.2116067590667603
0.022642818239062047 0.26447805627481524 -1.2031787552652697
-0.009784416889538588 0.26113590131598885 -1.2071104060617501
0.01955752007416332 0.2701743611368381 -1.1842899186878644
0.003191251066785479 0.270514545837826 -1.1884912152965823
0.017680815024092883 0.2634226588056507 -1.1705440870028414
0.005492795687801582 0.26377732956837835 -1.17084561696629
0.012949151654607461 0.2403247874895294 -1.1640140547176794
0.0015884221850755269 0.25042019763836365 -1.1631990090720314
0.013865169259982216 0.23109970175881797 -1.1686774998308127
-0.012561320652260372 0.22827407643458417 -1.1719988885396573
0.014534029300697688 0.222661429084671 -1.1894595197170137
-0.006752154736366888 0.22216093320068142 -1.1832665407400116
0.017735209245284742 0.22644315444135918 -1.2018133848138635
-0.020677422228922257 0.22477476263294255 -1.2003954063528497
0.02585700713098049 0.2520026068859517 -1.2057116658017997
-0.025856716558337215 0.252844151158258 -1.2016871910943292
0.02585700713098049 0.2668143214322063 -1.1987826937837487
-0.02585673413035998 0.25868105218830645 -1.2088967001856794
0.02585700713098049 0.2669881981531942 -1.1905862368107134
-0.025856863664349552 0.2586249916130755 -1.1877878420600219
0.02585700713098049 0.26204775359091437 -1.177675792333048
-0.025856871078113304 0.25894761381919057 -1.1804579222578155
0.025857007130980495 0.24928274795322658 -1.1679060857116554
-0.02585671655833721 0.24667335771343415 -1.175080644296333
0.02585700713098049 0.22775812862262848 -1.1728183631529272
-0.02585671655833721 0.2282086217185122 -1.1759700174280276
0.02585700713098049 0.22949502252411946 -1.1948080608659841
-0.02585671655833721 0.22957824603929813 -1.1925898908812305
0.02585700713098049 0.2243919628654402 -1.1989199566152904
-0.02585671655833721 0.2272618687862338 -1.2011506151791382
0.0030341350984556164 0.3606435113926303 -1.2315766868570066
-0.005476937610083797 0.8660189312570548 -1.3945741538911924
-0.0045875323792130655 0.8270576100709593 -1.3684565973043632
0.006958253888062253 0.5464954607654618 -1.277967590746167
0.009513130854480363 0.5994833552572318 -1.2988443714701092
0.009513156408370568 0.37201418908437855 -1.2276718110096296
0.002689707768391318 0.2571660161335806 -1.18515335096953
-0.00014898989704055857 0.2544776524853517 -1.1934904926884853
-0.00951320668795071 0.5904337361090277 -1.2954469590667457
-0.009513239616982121 0.8855445540554004 -1.3938146728949627
-0.08508825174054584 0.8942896634358211 -1.425756284554991
-0.004164882993018842 0.8937719017032922 -1.4273615948030698
-0.381187826535317 0.8961342288551358 -1.4200372451110848
-0.3440594268617296 0.8839398392557234 -1.4578457144573802
-0.27812098997276224 0.8439533815398701 -1.5818229540306996
-0.21665104419572875 0.8416703458613976 -1.5889014620414807
-0.2791983296831333 0.84739537279848 -1.5961826627153974
-0.41932179006515785 0.8425662813230997 -1.6111558498650635
-0.33108443504131047 0.8488512118050227 -1.5916686562991007
-0.17475739692401307 0.8866523432387541 -1.4744616374815818
-0.1727203910102372 0.8750699427434901 -1.510374282984807
-0.16890906984711143 0.8772237347418147 -1.5036961881844118
0.4285713732242584 0.8675434818773418 -1.5325216197446758
0.4285713732242584 0.8819447692600246 -1.4799263238536995
-0.0010450995896116844 0.903924367749705 -1.4195731851461086
-0.37011824284171274 0.9017394840617372 -1.4188689976464939
-0.42857137322425837 0.884888586393218 -1.4683779062269808
-0.4285713732242584 0.8385882160436973 -1.6111129877362542
-0.18245448457261723 0.8330030319144973 -1.621961434529611
-0.41739863757224527 0.8355226912657892 -1.6227767247749645
0.18354261816419185 0.1560477614402771 0.880842618115684
0.1197288202213454 0.1560477614402771 0.6967668299075787
0.11047870267185422 0.17321085929870605 0.8826959045131558
0.17809619926646117 0.17321085929870605 0.7955866262550537
0.19231927394866943 0.16819585819089417 0.8470142670930537
0.1923192739486694 0.1673036178528851 0.9319907965971771
0.16295429938223122 0.16646176461649112 0.9480863809585572
0.1252958247469278 0.16018209724410237 0.9480863809585571
0.09295588731765747 0.16489023882522313 0.8566965033923517
0.09295588731765747 0.1607445797154634 0.7766145703766059
0.1541410944277389 0.1603373792890982 0.6377976536750793
0.13725752239784864 0.16650878370498828 0.6377976536750795
0.186775066285122 0.1636892557144165 0.9043282792138418
0.19572122801661143 0.1636892557144165 0.9338731549517272
0.11727755468573915 0.2401880919933319 0.9149682466119288
0.22612681698370188 0.2401880919933319 0.9304428660350467
0.1558119731595317 0.18781599368410626 0.9809509439603218
0.23781586934076715 0.1936712180638776 0.9330358504084552
0.037545979022979736 0.18113007276662663 1.0022909577670998
0.037545979022979736 0.19094119084893355 0.9363531368415353
0.14524623137784068 0.17902697622776031 0.9884526563273257
0.07194639357152165 0.17902697622776031 0.9367276807130877
0.25104498863220215 0.18728339901322966 0.975240547787532
0.25104498863220215 0.18608961442687416 0.9491904073711879
0.13319394285752656 0.18361922543525722 1.0094232559204102
0.24094159405291876 0.18052974046612294 1.0094232559204102
0.10661104779782488 0.18972907968529917 0.9329244494438171
0.1529150543606999 0.1865174688338972 0.9329244494438171
0.22881664335727692 0.18180505041376216 0.906725589200947
0.22881664335727692 0.1673156494323355 0.9339972566133166
0.20974417698371522 0.18803318434770228 0.9379908442497253
0.11058414756401522 0.1656285061042913 0.9379908442497253
0.05977461114525795 0.18885262406557762 0.9161805670753055
0.05977461114525795 0.17638680130117612 0.9200398788302704
0.10751437102375871 0.19274347585874985 0.9038858413696289
0.2143932937350359 0.17709758391597274 0.9038858413696289
0.2181631210594409 0.20408520611111647 0.9048115896813034
0.07883802136842513 0.20400273596210172 0.9071418893913269
0.07505601110408637 0.19979265770947233 0.9048362682007011
0.18355752830470107 0.19988810567321108 0.9075622268375183
0.05991103500927747 0.20411442287346274 0.9086782734418676
0.06712502937877311 0.20392692329211307 0.9150376948917767
0.0625526889144014 0.19983081736204195 0.9198929187693645
0.06617115196244286 0.19992386622129477 0.9116774602492895
0.08277680387136584 0.20395596493217766 0.9334063378800896
0.1669687537957286 0.2038997750452327 0.9318162333269735
0.1954040657468309 0.1999035071013493 0.9338684104304273
0.15344158206573932 0.19993226865806094 0.9330457558817573
0.22473726157641957 0.204011955683451 0.92277849092089
0.2223089973303367 0.20394885113004943 0.9222705384804952
0.22476007157253297 0.19986367951374928 0.9176720220730357
0.2204850034805885 0.19997359786274327 0.9265624428326849
0.15871409593353747 0.2027524269588725 0.9100698232650757
0.14772919054071462 0.20140741425398007 0.9100698232650758
0.0681949332356453 0.20270254218332523 0.9278214547712142
0.0681949332356453 0.20036612001766652 0.9185457734980653
0.18870360922084206 0.20385357647975988 0.9317975640296935
0.13202062627606834 0.20149983119560982 0.9317975640296936
0.22039516270160675 0.2027639320064529 0.91507229342831
0.22039516270160675 0.20081030316603027 0.9303267395247663
0.22881664335727692 0.21424619902417663 0.9096079759086964
0.22881664335727692 0.20645470444303066 0.929969220652699
0.22881664335727694 0.2234136040360507 0.9080871684251044
0.22881664335727692 0.22478880985984598 0.9366707979093184
0.22881664335727692 0.2370099622878096 0.9243500101677493
0.22881664335727692 0.23591883473032838 0.9300375776915427
0.09180398484931424 0.21587475741430395 0.9379908442497253
0.12832874540116734 0.21256552368012327 0.9379908442497255
0.14156471300731222 0.22229381573101858 0.9379908442497253
0.08855886720442536 0.22320410305601965 0.9379908442497255
0.19979475946407677 0.23713071212345693 0.9379908442497255
0.10858125111613035 0.23045099269310554 0.9379908442497253
0.05977461114525795 0.21572896769961078 0.9337006391200325
0.05977461114525795 0.21065390853899665 0.9094968077890495
0.05977461114525795 0.2243997837989617 0.9305756813685866
0.05977461114525795 0.21887859526350667 0.9062174644648586
0.05977461114525795 0.239390688314637 0.9130579204824499
0.05977461114525795 0.23704385147369408 0.9074284466540573
0.07859679707229851 0.2126383874482378 0.9038858413696289
0.17782916210091454 0.21187445755237477 0.9038858413696289
0.21423839634565725 0.23959200317303392 0.9038858413696289
0.20685458334933138 0.23046427011296997 0.9038858413696289
0.20597088473896286 0.22568972408771515 0.9023667925587904
0.06209376640253656 0.22568972408771515 0.8962600419531448
0.14245662619291127 0.21861401200294495 0.9029776522664215
0.16649492793787785 0.21861401200294492 0.8957826618533693
0.05977461114525795 0.2245028963416625 0.8971313401249059
0.05977461114525795 0.2220775661770721 0.896393250340231
0.22881664335727692 0.21925937006321716 0.8925758704330394
0.22881664335727692 0.2223276721529856 0.8964331574545492
0.11879569826725384 0.22395846840745592 0.8913315534591675
0.18290469375014726 0.22224397459182746 0.8913315534591675
0.3071135278670689 -0.13995780065608163 0.3387648419687629
0.3152180395598329 -0.14709441189179373 0.35567762432601113
0.31378347456368755 -0.150984329263774 0.3586866888646475
0.30547502875389726 -0.14366913049366867 0.19588368736230616
0.3154113965784907 -0.14901460918851755 0.42658930852390137
0.31481331622210107 -0.1500885434189292 0.23290651809593804
0.30552884628018784 -0.14161229029297792 0.23908270252939576
0.30492700319981264 -0.14269335636382574 0.3272266912790761
0.305371395744634 -0.1513309516974577 0.15787114093039273
0.30528323124565365 -0.15148926475649674 0.36998385988113525
0.31523917854421 -0.1587598086040785 0.49285450802767056
0.31481818637063236 -0.15951601115329006 0.3189781606094916
0.3095932787500689 -0.15673111733359196 0.42383559616364475
0.3079917100505439 -0.15532081274759557 0.3342765466489792
0.31137691724779976 -0.1531480645464951 0.462700285304067
0.3110765555052141 -0.15288361136539763 0.19613993283708303
0.31369788291250134 -0.13575601648899888 0.3810337529394844
0.3134745383705033 -0.13555937302134646 0.19734403400851763
0.3107827874240242 -0.13834153733539617 0.48848927478097837
0.30582199188933346 -0.13397440197953864 0.16047217417081971
0.31551538639617877 -0.1388274695968417 0.3744717521633054
0.31430047005747586 -0.14100828297269297 0.3915347195290906
0.3059317152046099 -0.130889271189508 0.26203063117392167
0.3050292284618612 -0.13250982638620448 0.20468993745677136
0.3058424428095997 -0.121612951386039 0.2905738340244648
0.305457671822118 -0.12230386748903065 0.45704156472421154
0.3151161814051961 -0.13010799851264346 0.32663413363406885
0.3147937604807017 -0.13068694642729575 0.2698981547294018
0.30845537636566306 -0.12685647944983564 0.3711433111207965
0.3081798021134251 -0.12661384961911704 0.23760520091607734
0.3149108978405999 -0.12738739194765608 0.294952239640274
0.3118917452896373 -0.12472918225208199 0.1742388703733026
0.31466718651071923 -0.08817010930791092 0.2459091315963184
0.31179888607803125 -0.08564453754222068 0.2999292272439709
0.31081349534395153 -0.08992969165572616 0.33730655159464756
0.3070354228053378 -0.08660351175754288 0.2598410973908073
0.31517716593018386 -0.09099560528897128 0.48381349927688777
0.31491349956835685 -0.0914689723112045 0.2450171893600191
0.3065812519232599 -0.08128312277783249 0.21741909699199002
0.3048414272650851 -0.08440777343348908 0.16954979024610062
0.3061313378553179 -0.09152761149581998 0.16349216445320147
0.30570398706264146 -0.0922949879097166 0.37069112052696307
0.31437315002895255 -0.10187607441085217 0.4867002262870754
0.31468675184857475 -0.10131277181410538 0.26457355628417384
0.312843396459035 -0.10115384821925072 0.34412324389494087
0.3053180354497523 -0.09452765964033857 0.4746288033364994
0.3118268288307263 -0.09510512567107776 0.4635344731384712
0.30871957056446775 -0.09236953309042845 0.2867434456580551
0.31414684370922363 -0.11658422218824072 0.3763886917325665
0.3102691438983052 -0.11317010238400588 0.22876117008580882
0.3096128501472775 -0.1177451255396415 0.3992303097342138
0.30506320564944756 -0.11373937950407934 0.3063847205934961
0.31526918107111235 -0.11970281358824245 0.3597472573295981
0.3142419477896572 -0.12154734600695427 0.2986531502384471
0.30533147069081756 -0.11240002137424213 0.1885385837380803
0.30486848357499186 -0.11323138848227446 0.24310696652477062
0.30640888577028674 -0.10102872772992644 0.31395838743721655
0.305046325303488 -0.10347541679547284 0.3389642655487337
0.31515269265806933 -0.11047535413731531 0.43752795292721813
0.3146607914580151 -0.11135862741777007 0.1996765994799412
0.31018261623565124 -0.10881014782443889 0.3946633610031868
0.30516948559549467 -0.10439632423951024 0.20140045306815185
0.31500844560266483 -0.10790619047974051 0.33954988570167804
0.30842062595150943 -0.10210595158031427 0.2389989228279053
0.3126588830585854 -0.06749322541996018 0.3727453863864623
0.31427407367429055 -0.06891531894309126 0.15771664966734264
0.3113097763839448 -0.07145826500259152 0.4133435318776653
0.30675135040903106 -0.06744478729326199 0.3564333678244516
0.31544789306800786 -0.0716009891551891 0.38542921276795256
0.31504114111468573 -0.0723313657676117 0.28564892071170067
0.3058030367574539 -0.0637723278996732 0.32036246783404787
0.3049675748785049 -0.0652725311538628 0.29285365584039447
0.30579968844396677 -0.07321470249337914 0.2567752830333356
0.304786252897279 -0.07503417763884787 0.44295132452547475
0.31499977186681255 -0.08184180389071374 0.40828209031316776
0.31415975540361174 -0.08335005081420595 0.4866393799868357
0.30726948241385316 -0.0773370190475535 0.4929737260121596
0.30902692442367863 -0.07888436332180321 0.1775991279390356
0.3149390447603916 -0.07893737361845357 0.4687560331303785
0.30910235158986266 -0.07379835409786997 0.1905775110309074
0.3123238440120409 -0.05719851636968649 0.46647117033354457
0.31139102661822265 -0.05637715984596828 0.2754917424355737
0.308057351753232 -0.05859516317497948 0.4697635785474742
0.3061425647061332 -0.05690928482273539 0.25108787963998047
0.3153451369768557 -0.06178600716648339 0.442066532367143
0.31500414747960337 -0.06239829732309186 0.3043601400043092
0.306376982433085 -0.05274172989085364 0.2337660033304812
0.30495053831820906 -0.05530356525705861 0.3492144986506681
0.30566187216087753 -0.04458955144990778 0.1775475130800783
0.3052596355338989 -0.04531189130169212 0.2721374050004691
0.3151128169298706 -0.05276654143048699 0.4192245774973513
0.3148554061168828 -0.05322875638988792 0.250372990875144
0.30728994288874967 -0.0484828714209089 0.4237573424021953
0.3085427450625154 -0.04958590427178315 0.193599706042813
0.3128143518626654 -0.048193886315946385 0.3305193267764973
0.3117619829729651 -0.04726729627305348 0.23858436976276803
0.31123487885739903 -0.041156016290187836 0.44703787390175215
0.3094512201661074 -0.041156016290187836 0.17014073182415937
0.31006296821091944 -0.1623597890138626 0.2123158882039705
0.3076588599695431 -0.1623597890138626 0.4111231748009802
0.311339764269167 -0.15954103068409903 0.4968838691711426
0.3090350173467659 -0.10797323439145215 0.4968838691711426
0.30845423607643707 -0.06296605903759377 0.1453014612197876
0.30758860122481024 -0.1417439807697835 0.1453014612197876
0.31312948283848174 -0.04192773800573307 0.14319924137508433
0.31306981626165087 -0.11485249407849561 0.14299433408088866
0.31308478752676006 -0.14042758359828203 0.4991384680884252
0.31316358079912227 -0.06938494736364247 0.498868009400919
0.31332707165212514 -0.16378380199453596 0.16381026730520892
0.3134885477975938 -0.16322912191297717 0.474813402468353
0.313328742039212 -0.039737744575418274 0.41009570761417086
0.31329521100743 -0.03962256377912697 0.1544165038534029
0.3112804039992368 -0.036477286368608475 0.49503285226796095
0.31076744371718834 -0.03647728636860847 0.366478984763337
0.3091760314436798 -0.16703853011131287 0.34746481141227514
0.30657590693410897 -0.1670385301113129 0.3914140498263083
0.30910297794345776 -0.09194335845414414 0.5015591382980347
0.30972227025248344 -0.11259638423085207 0.5015591382980347
0.3072362942915591 -0.07042287452232969 0.14062388241291046
0.3120526571969467 -0.1407462249644904 0.14062388241291046
0.30943707759189404 -0.14200385496527934 -0.156576305219117
0.31388116398312493 -0.14591719583940638 0.05951855288031596
0.3117914757844179 -0.14923046730766737 0.04064496447904484
0.3064429008398324 -0.14452129669355038 0.0038996435974142964
0.3154983598314073 -0.14885845489738045 -0.04813668537226498
0.31416242653080856 -0.15125730395793238 -0.21857474233407317
0.30559947111593433 -0.14148542979366457 -0.24695178518595712
0.3055490866001514 -0.14157593343536978 -0.10646845214910554
0.3062878180232979 -0.14968537308038687 -0.25176626479830494
0.30562553204227244 -0.150874610481239 0.05349940290692411
0.31560281303441046 -0.15810663416110976 -0.028186442245630206
0.31449702301560817 -0.16009289728805765 0.014691743212687253
0.3083608375061516 -0.15564585790089752 0.030284983635758354
0.3089119099232641 -0.1561311196054378 -0.22806454670889834
0.31357255665288736 -0.1550812129568753 -0.1407377119288188
0.30830368675814307 -0.15044224198654038 -0.09961715526878917
0.3153308544344228 -0.1371937645520387 -0.18068956626484237
0.31308501869581246 -0.1352164208324781 -0.17339710735491248
0.31104649203592555 -0.13857368432191955 -0.06723916140188048
0.30831776563078983 -0.13617150558324814 -0.18826492800110145
0.31561664608362605 -0.13864570524502207 -0.05011244557240386
0.31419639080660333 -0.1411951085303224 -0.14335377104425537
0.3066234579673219 -0.1296471395594346 -0.24897134246426858
0.30537724659183413 -0.13188490575041265 -0.02657705177997176
0.3064570932881023 -0.12050925093271661 -0.19398107130526068
0.3054227014187869 -0.1223666622827539 -0.07287056778987518
0.31597083393888703 -0.12857336082463205 -0.062282148412215015
0.3146545489812452 -0.13093691843960334 -0.015245557524169492
0.30753908641694744 -0.12604973036736308 0.053125678028447046
0.3090250287121653 -0.1273580308512378 -0.2540918140352984
0.31220601712918195 -0.1250058825634515 -0.07406025065937571
0.31190850069927956 -0.12474393453492047 -0.19127473251326893
0.31324925754851185 -0.0869216064272871 0.017684497646835058
0.311114913831701 -0.08504229205420927 -0.09120909148801777
0.3138023052980301 -0.0925610121206301 -0.07290369866932404
0.30505824809754895 -0.08486282554756958 -0.04244822120513822
0.31528962659543974 -0.0907937017550443 0.08378231188682474
0.31451606325627185 -0.0921824999765289 -0.2401565917600074
0.3053395970635042 -0.08351308178744032 -0.15820318163064628
0.3056129228149308 -0.0830222004308681 0.019929762533972016
0.3058431200400563 -0.09204515248857534 -0.15459346958031928
0.3055003254577212 -0.09266069475924264 -0.05072495614544284
0.31481473165391066 -0.1010828899952956 0.021471948096801648
0.31457012004035284 -0.10152226996215133 -0.19311956692828597
0.3111540199085243 -0.09966632787429083 -0.018751006701006243
0.3079950499094808 -0.09688480936601351 -0.10202894958422717
0.31376671616367197 -0.09681297900690349 0.02014350533684573
0.31089153996048235 -0.0942817086664514 -0.17073504267796474
0.3150222166795056 -0.11735494409546947 -0.10643866239752252
0.3087664130277468 -0.11184702337434083 -0.12949554533333096
0.3117894028306458 -0.11966147686923519 0.08770272269733725
0.307396450067237 -0.11579369046859878 -0.14872004600754787
0.3149828519927713 -0.12021695509529298 -0.049146370727645716
0.3147988086300775 -0.1205474291512511 -0.19394834671921762
0.30591000042870453 -0.111361179085424 -0.16793864586632606
0.30510365323845606 -0.1128091038952348 0.03831104139602583
0.305926356818717 -0.10189518344942128 -0.204975625015603
0.3051549653707745 -0.10328033667155395 -0.028584100475977953
0.3156428797605193 -0.10959515874448032 0.01778476877349195
0.3144268503773631 -0.11177869938693352 -0.13781633320606518
0.3118280282786985 -0.11025885503034183 0.04551516017541258
0.3060910178349837 -0.10520768963668292 -0.14066700521683864
0.31493565231506176 -0.1078420997060506 -0.10046843969426843
0.30929876238491316 -0.10287910588169812 -0.23251750646575625
0.31567317341556367 -0.07014713099218783 0.01970171910698646
0.30781300966540404 -0.06322616573524587 -0.11141145856824025
0.310509970619684 -0.07075407398921987 0.04005042113220027
0.30639922591289703 -0.0671347583876879 -0.014358047494390243
0.3153252175128191 -0.07182126924405909 -0.05362936162461599
0.3149747246296955 -0.07245062529893051 -0.1939854961448313
0.3054653309079588 -0.06437851239454137 -0.17062140351263086
0.3054371563764532 -0.06442911275682658 0.0552234483665315
0.30580019367012934 -0.07321379543377507 -0.2306343316124514
0.30510619188847404 -0.07445977402290177 -0.17765734946205256
0.31455380114336046 -0.08264248987888248 0.036820231089768736
0.31431947842558816 -0.08306324712767348 -0.10111889049021885
0.30809587808643085 -0.0780646212131321 0.07832205339391618
0.30520652635916584 -0.07552068415775182 -0.1604907864225491
0.3138990166940361 -0.07802127621416645 -0.1331775167346513
0.3102079793531746 -0.07477173452628871 -0.22421714268838405
0.3117796221920832 -0.056719322751370246 -0.02726715565590772
0.3128655637952218 -0.05767550691562984 -0.2241679704632165
0.30872412853804265 -0.05918222822171376 -0.018302457791420132
0.30895029752895986 -0.059381359193648175 -0.11225186720450503
0.31533007049954537 -0.061813060949154744 0.05684381316364602
0.31472621890267377 -0.06289735354994191 -0.24251608429273414
0.306633975846678 -0.05228018021711703 -0.10960456128416013
0.3056105075636155 -0.054118287449216186 0.07244488699110918
0.3058277103967573 -0.044291737778325006 -0.0850369657534762
0.30496668260927196 -0.04583797857958191 -0.13553527055130823
0.31454039396189176 -0.05379440213234883 0.08994895173802787
0.31509961086114135 -0.05279025466324011 -0.2573632610961512
0.30985066368394243 -0.05073746453877066 -0.014979616090530855
0.3054123880454914 -0.04682977349786906 0.050319614234945576
0.31395022700286906 -0.0491940019647301 -0.16546183393398406
0.31162336597151885 -0.04714524673835814 -0.1911229406500863
0.30958434962723197 -0.041156016290187836 0.06419576575414451
0.30730151442843245 -0.041156016290187836 -0.22679016652639233
0.3136927668067343 -0.16235978901386264 -0.09233512256142379
0.3077827742962135 -0.1623597890138626 -0.16735160860956091
0.3115772095299598 -0.12517368118036493 0.08995528519153595
0.3086709451008004 -0.09616120381519783 0.08995528519153595
0.3082309297886041 -0.06927884275502438 -0.26162946224212646
0.3082198677955719 -0.15416635718355606 -0.26162946224212646
0.3134408738748133 -0.06836661099087535 -0.2626617846636062
0.3135369932749683 -0.1289644187194656 -0.2623318559740382
0.31276446046704626 -0.10459419455867139 0.09331147315406456
0.31345794302740443 -0.10781886709655777 0.09092962313971492
0.31327069988365824 -0.1639774423433323 -0.19385032114593487
0.3136528405142341 -0.1626647667433569 -4.049779055582958E-05
0.312457786887331 -0.03674596941681826 0.09051903225951344
0.31352976678464123 -0.04042827478049274 -0.2220067661186213
0.30654276738722125 -0.036477286368608475 0.06063803535250091
0.3095729097216641 -0.036477286368608475 -0.1870816978842359
0.3113926510414897 -0.1670385301113129 -0.0049392340254307224
0.3066866723815568 -0.1670385301113129 -0.26356628813463645
0.308100964496871 -0.10683016581963756 0.09463343024253845
0.31016943886469295 -0.15935602228923673 0.09463343024253845
0.30973395997528647 -0.06608463136387266 -0.26630470156669617
0.3107168271392221 -0.1210735419571343 -0.26630470156669617
0.3099755549466204 0.0351497578587914 -0.45364504363124186
0.31297665519842155 0.032507441101341454 -0.41195393511858064
0.3086315641813232 0.031180213511466028 -0.4528695205568062
0.30811856417018996 0.031631896016265655 -0.5186100556827982
0.31552025150638613 0.028809307535513147 -0.32656079513708797
0.3148528531220676 0.027610848091676257 -0.5002971616325285
0.3058554281391007 0.03660219786363366 -0.5204656877589657
0.305684395000167 0.03629508095253596 -0.44086346243660224
0.30604465976440576 0.02750546299607001 -0.6170615170503325
0.30526253621217425 0.026101051121720998 -0.4509694805383658
0.31473795677315397 0.017968052259157617 -0.35522675805380377
0.3146672321692952 0.01784105707080362 -0.5038209057941946
0.31040181250158205 0.020184979891584014 -0.47395584270425994
0.30820333990964915 0.022120684726304813 -0.5151750747014848
0.3144161073092229 0.021803450769724172 -0.6001711411950175
0.3076200429749851 0.027787042523125277 -0.6264793049582111
0.31304024973677347 0.04245094433121392 -0.4048110253811722
0.3132381693938265 0.04227668609837215 -0.5706489893165569
0.313150472053484 0.03720077697213597 -0.3945063944881151
0.3065320499005948 0.043028185569770734 -0.6335946748278826
0.31478142557349403 0.037482033367484485 -0.36215023075160385
0.31450081270603364 0.03697811426553558 -0.4320551582645832
0.3054519663277849 0.04587721370088178 -0.6641913593341495
0.30488719544225296 0.044863078715557954 -0.42884457104779106
0.3057376018410566 0.05582645262114695 -0.6258165933589055
0.3048202108865447 0.05417913282116484 -0.6012236101632724
0.31488603248103575 0.04710650811300177 -0.4482709767918096
0.31441710797229094 0.04626442173953984 -0.5303329596889796
0.3131809582258796 0.0466105274082053 -0.40743175114385793
0.30741465181732064 0.05168748650840295 -0.5546689188002154
0.314553384280236 0.05055528524718432 -0.6096504165015908
0.30667862956131225 0.05748836439802584 -0.6132796674610951
0.3138992217309068 0.09013392283428018 -0.42182101927304616
0.3085317756854154 0.0948599680741436 -0.6478153452273994
0.31413791065772984 0.08477118437848305 -0.4414743443408783
0.3059202134631759 0.09200596850147713 -0.5363381996515376
0.31506362308206637 0.08642827839116901 -0.3623496205653193
0.3144033923485876 0.08524295995915897 -0.38321849721413115
0.3063484208339933 0.09592638288056597 -0.5200118465382738
0.30534061603234297 0.0941164085711124 -0.4459444323043667
0.30559994729697 0.08514611117775434 -0.6455262031041774
0.30517402574466446 0.08438117264284169 -0.566344643025665
0.31547472243413355 0.07773004656002695 -0.48699208394030724
0.31451242771865395 0.07600212359819869 -0.4992312347981408
0.3072162358166339 0.08142876290756129 -0.3834837142738139
0.3070138998176747 0.08160690999052378 -0.5228838258079744
0.3146652339203115 0.08002322918796337 -0.3452911127907941
0.3079026916430806 0.08597772601996201 -0.5291628254830245
0.3117555766770221 0.06314902690025863 -0.43942490999392925
0.30979689720639364 0.06487354215685126 -0.6042698426083268
0.313623928958168 0.056350977325322744 -0.3607304143324203
0.30776845765290783 0.06150643724233322 -0.6098767377541464
0.315443170296581 0.05823732683064167 -0.35508280670618547
0.31471615737756475 0.056932000292236745 -0.5923111460330357
0.3058771554510961 0.06620750286005664 -0.5371346036587066
0.3053276752585772 0.06522082365676873 -0.5123038341384535
0.3050613487594037 0.07417922172133724 -0.6278643794298513
0.3050512067378403 0.07416101010626502 -0.5906575021826872
0.31526791423193845 0.06735920168214726 -0.4200792752246535
0.31418881095411777 0.06542152986503187 -0.6549271627873295
0.3101807546115077 0.06881915158136945 -0.36247868120504156
0.30875546419773725 0.07007405214056898 -0.5528049399809083
0.31363934177140873 0.07092689780947073 -0.4002733572456816
0.3094542683632261 0.07461164461860262 -0.6458259419822642
0.31323868713894626 0.10962452905595527 -0.5522360339986848
0.3111642812390172 0.11145093919864546 -0.66429190903937
0.307944165314324 0.10913324472848977 -0.3786035916616623
0.3061103779468357 0.11074780746649798 -0.609403738156983
0.31510037888899406 0.10540324865777476 -0.45350638178761626
0.3148228867889621 0.10490497618089412 -0.6008437020908135
0.3056068789970907 0.11350368723645907 -0.5276547788369468
0.30555594451096557 0.11341222645119609 -0.32538430182336364
0.3062289242174884 0.10518404213619414 -0.5838965331929975
0.30504431475194815 0.10305688716394967 -0.3940643420781561
0.3159156831778416 0.09743007271516743 -0.4253704310386337
0.31476849357961756 0.09537048919198227 -0.55380789130728
0.3088835094925929 0.09886956705206752 -0.37733014860015435
0.3055550627553551 0.10180010642247986 -0.4450421812409242
0.31567056067613947 0.09804620762725791 -0.6367213599206623
0.3096390440471632 0.10335702790564778 -0.5412528925593335
0.3137096996070251 0.1192087382459324 -0.5095249682220152
0.3109429367040487 0.12164473612809094 -0.545058908386921
0.3071201466495605 0.11985766418058084 -0.373538116121683
0.3068877786981955 0.12006225313262228 -0.6614914169818684
0.31500910051391207 0.11523825681618544 -0.4535148957615619
0.31429414339839956 0.11395446007830037 -0.5499102049975148
0.30634901346488713 0.12483522134858245 -0.5459275059745925
0.3049627082748611 0.12234588957824441 -0.3734182162183924
0.30645429097402976 0.13446088697395475 -0.5520700149217428
0.30483152046619594 0.1315469503420367 -0.5941099611651554
0.3158976262709682 0.12627034046137384 -0.38745761279275015
0.31483410299366654 0.12436064869883268 -0.5112125196458276
0.3106788131639636 0.1261610522296101 -0.390882995598964
0.3055142457615495 0.13070821279070416 -0.3505858967568007
0.31588911185773083 0.12672649582265155 -0.4631729169222908
0.31286836597027146 0.12938611315974757 -0.6493812309511954
0.308758823908131 0.13647252321243286 -0.40100410142970316
0.30888804178267354 0.13647252321243286 -0.5602332177983267
0.3079404124666386 0.015267261890620124 -0.6111811083946426
0.3085376627439508 0.015267176879652802 -0.4054586654393598
0.3085884453899942 0.029828193510410016 -0.32128068804740906
0.3075952276234136 0.09238994916289187 -0.32128068804740906
0.31000865214010237 0.09230334565825904 -0.6728665828704834
0.30879014052629805 0.05806012660201891 -0.6728665828704834
0.31366612694550383 0.12990872305652562 -0.6731254707786248
0.31372207278361897 0.045304143283980365 -0.6729336270976979
0.31243628709930615 0.07374617254277079 -0.3167979057717918
0.31365939494411527 0.06741020447253257 -0.3209982962399519
0.3133563931046039 0.013944060106364623 -0.573379336022109
0.3135312059307988 0.01454449349401805 -0.5469323509648705
0.31276368761745665 0.1398309483665206 -0.4905261221091951
0.3130636616778726 0.13880077904055782 -0.6445417399637889
0.30794662477401125 0.14115008711814878 -0.49633747315815496
0.3095748511409838 0.1411500871181488 -0.579381216856737
0.3113793999778943 0.01058885399950106 -0.48541469490676203
0.3087832294706195 0.010588896497369906 -0.5620347492749622
0.30662907199811407 0.10635690632487783 -0.3166031241416931
0.3119451454909493 0.048401853134304625 -0.3166031241416931
0.3099872018653783 0.11483504421194013 -0.677537202835083
0.3093853400120025 0.018688978090083973 -0.677537202835083
0.3102226493925252 -0.14269560799758707 -0.5799985492177668
0.3158875753298769 -0.1476839867706199 -0.4768806055185395
0.3132461480531096 -0.15051091080011886 -0.4181716873132739
0.30820791513845214 -0.14607487531404495 -0.5526088572625557
0.3145888542208012 -0.15049159532332188 -0.33620258024653915
0.3150818282442042 -0.14960600052418796 -0.6086356995479896
0.30662243319786936 -0.13964792491140468 -0.5259907789242247
0.30514511243693215 -0.14230157567600688 -0.5367555035601035
0.30553834786609135 -0.15103116321834587 -0.6206332573484615
0.3052102128748959 -0.1516203805885425 -0.39250705350052345
0.3149244384541726 -0.15932515701994748 -0.383302181739773
0.3147605604696214 -0.1596195210424995 -0.572566397514122
0.3097637337315027 -0.15688121607246797 -0.3532091735565354
0.30540498673743516 -0.15304300365188672 -0.5902733389023624
0.3144662122244285 -0.15586803106714842 -0.6050368847997982
0.3093566954705897 -0.15136936240251844 -0.6344345941336845
0.3159650290624423 -0.13775212293785488 -0.602046439177268
0.3101594393599303 -0.1326405975759375 -0.6695137812736612
0.3138795206483247 -0.14106768338534514 -0.42001170791344583
0.30764207301419977 -0.13557667334415116 -0.6395342100766344
0.31531082815739436 -0.13919465812585435 -0.4468900734693093
0.3145410941642757 -0.14057635506626473 -0.46646855659492636
0.3060147471386757 -0.13074017444839423 -0.5458312081304837
0.30543141549849206 -0.13178763706044103 -0.35495894440988796
0.3063383926297688 -0.12072239641131688 -0.6179912812132135
0.3055280128915822 -0.12217755916752096 -0.3390084533988745
0.3157211386380003 -0.12902172060144718 -0.45270050993192407
0.314876412403904 -0.1305385343518232 -0.5673239192630583
0.3115447233753311 -0.12957650040933932 -0.4850328496423367
0.3087339069035431 -0.12710171214740074 -0.6564071778424654
0.31264807012426865 -0.12539508765914048 -0.43415734477697276
0.3072373757949727 -0.12063124751421728 -0.6365622895316808
0.3114022992427755 -0.08529533823856623 -0.3808647867157322
0.3117023959509126 -0.08555957686727131 -0.613662956410791
0.3094508119633661 -0.08872970791018381 -0.4877073610826005
0.3057469218963159 -0.08546825733344189 -0.569448107349791
0.3152608115238053 -0.0908454341966061 -0.4430200022776424
0.31466890364213856 -0.09190810168835378 -0.4246876940234439
0.306566999558318 -0.08130865831456488 -0.5197848689332342
0.30541688961291014 -0.08337362108617341 -0.48264236784145426
0.3066556711160437 -0.09058573446251682 -0.5355710770514656
0.3056542133685131 -0.09238436450515333 -0.42065320854524363
0.3145415137814521 -0.10157365352855215 -0.35669223588787013
0.3146835229299858 -0.10131857171101943 -0.5930925309794934
0.3106346586935044 -0.09920902285635883 -0.39462844807569597
0.3067785879173852 -0.09581369708996965 -0.6463946671713372
0.3155395511978353 -0.09837376152016783 -0.4702100437304175
0.30839678646516966 -0.09208499997542414 -0.6004290670147264
0.3151548152291114 -0.11747169045447 -0.5261356907472919
0.30698244273885045 -0.11027632719091322 -0.5402593748072757
0.3060977068126952 -0.1146502086766532 -0.3467966089421007
0.3056688067238973 -0.11427258250582295 -0.5902548482281487
0.3153734596792239 -0.11951556763670196 -0.42311127577246277
0.31451390131340307 -0.12105901769829441 -0.5588318984865865
0.3063068262844125 -0.11064861505766697 -0.6418253939486759
0.3053355238222469 -0.11239274333120462 -0.3285671087030144
0.30565433719801677 -0.10238363695133823 -0.5342575841725505
0.305029576991354 -0.10350549099266493 -0.5403851408916741
0.31557715409612813 -0.10971317781658367 -0.416007516287598
0.31497007005721517 -0.1108032770285866 -0.4966749585838981
0.30533510553578896 -0.10454214473593818 -0.3375024792604199
0.30576599350730826 -0.10492152114315154 -0.537379308728229
0.31318882728648295 -0.10630410944253799 -0.5328513041190497
0.30793861896887786 -0.10168156903821406 -0.6334303926225358
0.31156652508139476 -0.06653117955063115 -0.44487199294202995
0.3096141202747034 -0.06481206449602141 -0.5348425817778938
0.3110924607417589 -0.07126692889433799 -0.3493919109387631
0.30739290983452966 -0.06800964991637337 -0.4958161269972421
0.3157075892779119 -0.07113467046513838 -0.4593709710201804
0.31506119817191486 -0.07229535068423093 -0.5405776771677715
0.30565151291014403 -0.0640441367631423 -0.5428683164762712
0.30488209505354635 -0.06542598129478304 -0.5239074336258234
0.306041344025055 -0.07278084527868904 -0.5111116677601298
0.3050397666451756 -0.07457903082182529 -0.6089371092410787
0.3154965012295303 -0.08094974792683077 -0.36454514257800513
0.3148001001048001 -0.08220022770993587 -0.5459363660367399
0.31322143404138014 -0.08257742995156941 -0.4060951272878119
0.3092461448281155 -0.07907737648281085 -0.6464450004447312
0.3120338510034731 -0.07637920838700404 -0.3668383424723848
0.3095945466140886 -0.07423167625153179 -0.5581837453318961
0.3147462631753556 -0.059331484511312114 -0.5500121379765176
0.31285840805102844 -0.05766920619995474 -0.5937293786732184
0.3057997173001569 -0.05660742409063242 -0.3244038366861752
0.30882429585221904 -0.05927013546083849 -0.6442684467881834
0.3155188405899208 -0.06147410016258985 -0.4211203446139016
0.31505016258984164 -0.06231567132058688 -0.5134769658905651
0.3056000968279834 -0.05413666232842085 -0.5490121525332725
0.3048814975850472 -0.055427060115497945 -0.6212817810320147
0.3062246160239976 -0.043578971379833104 -0.5180892988419175
0.3052390689475975 -0.045348824946975175 -0.3755216687319549
0.31519671213912887 -0.05261589655162153 -0.46378283694429595
0.31500778860331263 -0.0529551336000717 -0.6137761976565257
0.3092208777241796 -0.05018296789342267 -0.43166847594224333
0.30485910688998197 -0.046342635701434584 -0.5695931776508422
0.31283036645371987 -0.048207986847383005 -0.450989428580449
0.3067901221899749 -0.04288967095434911 -0.5240086146967871
0.3097622610904778 -0.041155725717544556 -0.3301037311465097
0.3073604228639502 -0.041155725717544556 -0.5371094019062173
0.31012874296032467 -0.1623597890138626 -0.5445678838324521
0.3080710966828887 -0.1623597890138626 -0.5192402753178254
0.3088258763809682 -0.13005500339707154 -0.32128068804740906
0.3072361904265246 -0.10388772142778309 -0.321280688047409
0.31287578861547455 -0.08459977649587176 -0.6728665828704834
0.3090518062926843 -0.1387971125707735 -0.6728665828704834
0.31321879165690747 -0.0867957158490456 -0.6746594266771178
0.3135646096075353 -0.13487768724902854 -0.6734735835328517
0.31305511529187935 -0.1481097295806895 -0.31892308226587185
0.3133049812295802 -0.043253059457405846 -0.31978117054278943
0.3133499868730625 -0.16370508685935875 -0.6136031326549751
0.31359852844677555 -0.16285133189773382 -0.5681297878624818
0.3129334886270253 -0.03837991087060992 -0.3327301620628956
0.31343948644412 -0.040117931111564434 -0.6353540610322803
0.3065795652489899 -0.036477286368608475 -0.45454885598376077
0.30993945947940593 -0.036477286368608475 -0.635085237150985
0.31102085805026125 -0.16703853011131287 -0.44625315848797653
0.3068889326700572 -0.16703853011131287 -0.49176526841852275
0.30929064921389293 -0.055848390568742856 -0.3166031241416931
0.3097980596184452 -0.12281873121466072 -0.3166031241416931
0.3089339702646994 -0.09104790540002713 -0.677537202835083
0.31061964210644233 -0.09281970106366112 -0.677537202835083
0.3084837414590474 0.03646322407000453 -0.17103940727273842
0.31164189909119966 0.03368262624455834 -0.008497082146489001
0.3104596387796066 0.029570515090710184 0.06014736908478933
0.30835075888018204 0.03142734812030483 -0.12601846486694318
0.3153919114492839 0.02857883696976779 -0.059487179782087965
0.3142904908868648 0.026600927454408056 -0.07038645405750028
0.30633778149522306 0.037468339207430756 -0.24329539439024406
0.3054447352244064 0.035864734117385756 -0.12207732914537954
0.3057656431965322 0.027004350747954264 -0.13112892112671384
0.30559286367637384 0.026694097934594183 -0.06458216368456479
0.31540435513302134 0.01916460697518168 0.08459870553077095
0.3147356117426149 0.01796374112582938 -0.24108463960532717
0.3124396326478181 0.018390657379088474 -0.05575014851912609
0.3060632289147818 0.024004875536653765 -0.09491065820992356
0.3125209111571367 0.02347207536021991 -0.1273502862290511
0.3073557044085304 0.02801977929378466 -0.22286074867610214
0.3134075808094233 0.04212752792810901 -0.057436887144616186
0.30961098165509493 0.04547024117495285 -0.1893234236463215
0.31215320318748035 0.038078855316136154 0.08833561604962278
0.3092925204885669 0.04059763797605999 -0.22437208510111034
0.31461451152776243 0.03718229238700507 0.06314588673613414
0.31446617018774387 0.03691590390838483 -0.16325664610397014
0.30610367833214713 0.04704746514427345 -0.1726378134704141
0.3052047981559576 0.04543338435923208 0.04644551058754601
0.30639375975428373 0.05700468739341933 -0.08820896730537081
0.30561728909859026 0.055610412162190856 -0.01951302863971207
0.3157273918577487 0.048617220803448116 0.025444794396646625
0.31487817058893447 0.04709238986564069 -0.10073598386987644
0.30951619161354876 0.04983718046551712 0.07831896782863018
0.3085973516999054 0.050646175397571463 -0.15953171466990723
0.3147010637136225 0.05042521064651289 -0.14239402109038599
0.31124333942595706 0.05346950972612634 -0.10817773968969294
0.3152185184211514 0.08897209689083649 -0.203845365204279
0.31299536905949277 0.09092960566318486 -0.2555902581010414
0.30922553350230353 0.08909599550364716 0.01681583374160463
0.3091837934038434 0.08913274309783108 -0.0849322124515617
0.3155555580271918 0.08731139213977654 0.03929941945523089
0.3147541799455611 0.08587265739350154 -0.05701980227732785
0.3055118865937469 0.09442400317236768 -0.20463964403351206
0.30530085040428845 0.09404499120431664 0.0343299144501417
0.30514404826325525 0.08432733425268435 -0.22260165451653507
0.3052900264228537 0.08458950534716872 0.08194063192401654
0.315389172771989 0.07757643122449802 0.07429070266729493
0.3148237795306386 0.07656119550879012 -0.08316359989289054
0.31200055260913373 0.07721640284837097 -0.022150806092424685
0.3062594999390744 0.08227112267858314 -0.10656575689137227
0.3115217451627358 0.08279110746229666 -0.0026607890025185515
0.31148566705181197 0.08282287465699852 -0.10144382236678674
0.314566469012053 0.06067397915559035 -0.06190558687565654
0.3103206909770392 0.0644121733378503 -0.232909128758392
0.31281265655703333 0.05706526352497829 -0.012775973595082306
0.30824105752279785 0.0610903358631302 -0.11864251318850114
0.3160217513396962 0.05927618578038305 -0.04524765870770867
0.31441304445086227 0.05638754727146013 -0.054923819581421555
0.30652091792596403 0.06736348091796897 -0.23358856546644155
0.30515026468895917 0.06490225472222154 -0.12461403044986691
0.30624338773693494 0.07630149292874411 -0.10001849607909447
0.30500665606091615 0.07408093158995274 0.0377030245949909
0.31584564198500636 0.06839658782311604 -0.023725960361504664
0.31487687298923756 0.06665703571630799 -0.14092346498472474
0.3082941423834582 0.07048022410181737 0.026617453626347955
0.3049151693823369 0.07345524944939545 0.0002480045083299298
0.31599487794601 0.06885296217871315 -0.10930882623257594
0.31054158532859655 0.07365402875662944 -0.08821885270051326
0.31236559062862934 0.11039324665459149 0.027551033559446617
